ply
format ascii 1.0
comment VCGLIB generated
element vertex 1144
property float x
property float y
property float z
property uchar red
property uchar green
property uchar blue
property uchar alpha
element face 0
property list uchar int vertex_indices
end_header
-0.101554 -5.2635 -33.9866 156 153 148 255 
0.613701 -5.60638 -33.7836 68 79 65 255 
0.135719 -5.46418 -34.0873 123 128 124 255 
0.191108 -5.4898 -34.0808 115 114 109 255 
0.287476 -5.53223 -34.1245 76 76 66 255 
-0.031811 -5.49192 -34.168 121 118 111 255 
0.676012 -6.07468 -33.302 62 60 48 255 
0.573359 -5.5886 -34.1128 158 163 157 255 
-0.569627 -2.74781 -31.6183 143 132 126 255 
-1.06765 -2.74304 -31.9961 140 128 116 255 
0.084355 -3.13482 -31.1789 154 152 153 255 
-0.92905 -3.08106 -31.8694 151 151 153 255 
-0.952393 -3.05609 -31.8959 70 29 41 255 
-0.952393 -3.05609 -31.8959 70 29 41 255 
-0.958363 -3.12216 -31.8801 82 22 40 255 
-0.958363 -3.12216 -31.8801 82 22 40 255 
-1.02189 -3.03416 -31.9094 63 29 36 255 
-1.01244 -3.10989 -31.9126 67 27 38 255 
-1.0106 -3.10992 -31.9141 67 27 38 255 
0.784265 -4.00187 -33.7161 66 71 75 255 
0.785978 -4.00256 -33.7182 66 71 75 255 
0.850823 -4.07813 -34.0185 59 60 62 255 
0.704108 -4.09661 -33.9492 30 28 29 255 
0.662861 -4.08092 -33.9126 122 117 114 255 
0.813534 -4.25575 -33.7973 38 42 45 255 
0.916639 -4.31971 -33.8333 45 49 52 255 
0.678358 -4.26998 -33.8941 18 19 21 255 
0.484459 -4.25738 -33.7799 45 49 52 255 
0.759263 -4.78997 -33.4788 21 25 28 255 
0.734476 -4.75159 -33.737 39 40 42 255 
0.734347 -4.75296 -33.7378 39 40 42 255 
0.753206 -4.72042 -33.8646 44 44 44 255 
0.775208 -4.84757 -33.5333 86 94 96 255 
0.738191 -4.87455 -33.5888 18 20 19 255 
-1.55349 -4.92878 -32.0076 27 37 38 255 
-1.59627 -4.89625 -32.0289 85 96 100 255 
-1.59627 -4.89625 -32.0289 85 96 100 255 
-1.52825 -4.99415 -32.0056 42 53 49 255 
-1.59756 -4.95072 -32.0363 25 36 32 255 
-1.58637 -4.94958 -32.0477 25 36 32 255 
-1.61005 -4.93286 -32.0905 79 92 83 255 
0.660373 -4.88892 -33.9287 40 42 41 255 
-1.70562 -5.14025 -32.3235 26 28 23 255 
-1.70726 -5.36968 -32.0908 27 36 33 255 
-1.76438 -5.34972 -32.1069 66 77 73 255 
-1.78314 -5.63412 -32.0103 63 69 65 255 
-1.78314 -5.63412 -32.0103 63 69 65 255 
-1.90428 -5.54173 -32.1936 11 15 16 255 
-1.87044 -5.6787 -32.1719 55 60 63 255 
-1.79249 -5.76065 -32.1785 49 61 61 255 
-1.89997 -5.8025 -32.2506 20 15 19 255 
-2.01098 -5.80593 -32.2517 36 46 47 255 
-0.336114 -6.40866 -31.352 104 101 96 255 
-0.401244 -6.32952 -31.5658 185 185 187 255 
-0.396719 -6.35729 -31.5972 18 16 17 255 
0.633104 -5.39132 -33.657 140 149 154 255 
0.537296 -5.35297 -34.0357 41 45 48 255 
0.604328 -5.63149 -33.5624 161 154 144 255 
0.661962 -5.65525 -33.625 120 119 114 255 
0.631251 -5.62544 -33.7057 143 139 127 255 
0.610835 -5.54602 -33.8351 168 156 140 255 
0.05485 -5.48733 -34.0887 132 129 122 255 
0.204435 -5.51376 -34.1292 117 117 108 255 
0.070834 -5.48041 -34.1783 76 73 64 255 
0.769231 -5.65162 -33.9997 145 147 142 255 
-0.517472 -2.46418 -31.6093 145 134 128 255 
0.865815 -3.87077 -33.8172 138 145 155 255 
0.875961 -3.87457 -33.8322 138 145 155 255 
0.097679 -3.20568 -31.4059 156 152 151 255 
-0.194714 -3.59403 -31.507 115 104 98 255 
0.760234 -4.10108 -33.9883 15 15 17 255 
0.937312 -4.2755 -33.7157 25 24 29 255 
0.519806 -4.27394 -33.8028 10 14 17 255 
0.528351 -4.27586 -33.8145 10 14 17 255 
0.827823 -4.46564 -33.7612 33 34 36 255 
0.794038 -4.50915 -33.8322 61 70 69 255 
0.736268 -4.76016 -33.8623 52 54 53 255 
-1.49433 -4.90171 -31.9752 60 65 68 255 
-1.48894 -4.94945 -32.0154 77 85 74 255 
-1.50266 -4.95089 -32.0019 77 85 74 255 
0.603954 -4.7778 -33.9633 12 16 17 255 
-1.81263 -4.97287 -32.1534 60 81 74 255 
-1.77828 -5.31957 -32.143 28 34 22 255 
-1.8245 -5.29966 -32.1955 22 20 25 255 
-1.66428 -5.43438 -32.0928 20 24 25 255 
-1.85351 -5.56012 -32.1709 47 43 44 255 
-1.86213 -5.56322 -32.1632 47 43 44 255 
-1.83568 -5.67804 -32.1391 14 18 17 255 
-1.69619 -5.76433 -32.0555 17 18 20 255 
-0.630402 -6.41011 -31.012 133 131 119 255 
0.093751 -6.4186 -31.6906 110 106 101 255 
0.485217 -5.37581 -33.9058 112 106 92 255 
0.514412 -5.34641 -33.981 51 62 66 255 
0.641891 -5.51142 -33.7445 165 164 146 255 
0.159622 -5.47735 -34.0766 123 122 118 255 
0.570321 -5.52723 -34.1116 173 164 149 255 
-0.016789 -5.54114 -34.1863 68 64 61 255 
0.796634 -4.11605 -33.8973 67 68 72 255 
0.603964 -4.33599 -33.8792 18 22 25 255 
0.818594 -4.48533 -33.8005 20 21 23 255 
0.804727 -4.67742 -33.7131 86 87 91 255 
-1.96556 -5.64579 -32.2488 31 41 42 255 
-0.313046 -6.40574 -31.4556 88 85 78 255 
-0.401488 -6.40138 -31.4244 139 138 133 255 
-0.401488 -6.40138 -31.4244 139 138 133 255 
0.509082 -5.37302 -34.0924 167 179 169 255 
0.741944 -4.17543 -33.6038 29 32 37 255 
0.760919 -4.57272 -33.8829 112 124 124 255 
-1.64815 -4.90732 -32.1388 22 23 25 255 
-1.61658 -5.47009 -32.0721 58 74 71 255 
-1.7485 -5.57667 -32.1568 13 20 26 255 
-0.771731 -6.35054 -30.7824 109 109 97 255 
-1.78483 -5.70038 -32.1304 15 16 18 255 
-1.78483 -5.70038 -32.1304 15 16 18 255 
-0.545993 -6.21534 -31.5378 94 113 107 255 
0.028854 -5.30624 -33.7682 86 83 74 255 
0.653982 -5.4443 -33.6356 190 190 180 255 
-0.135679 -5.26752 -33.8848 94 94 92 255 
-0.012245 -5.30269 -33.9022 175 172 165 255 
0.566317 -5.53553 -34.0991 173 164 149 255 
0.072745 -3.19392 -31.2766 152 148 147 255 
0.868535 -4.04818 -34.0323 34 35 39 255 
0.752803 -4.12851 -33.6137 143 129 120 255 
0.716112 -4.35484 -33.9033 63 67 70 255 
0.715985 -4.3548 -33.9034 63 67 70 255 
-1.68889 -5.0874 -32.1013 42 43 35 255 
-1.71003 -5.42627 -31.8564 51 49 37 255 
-1.94325 -5.64143 -32.167 10 14 17 255 
-1.94325 -5.64143 -32.167 10 14 17 255 
0.453197 -5.52585 -34.1129 126 122 113 255 
0.253158 -5.52356 -34.1396 112 109 104 255 
0.062893 -5.47394 -34.1738 87 84 75 255 
0.764399 -5.71558 -33.8449 31 30 28 255 
0.755642 -5.83703 -33.6948 20 20 20 255 
0.797384 -4.0468 -33.7585 31 32 36 255 
0.701992 -4.81804 -33.8669 38 42 42 255 
-1.68778 -5.01081 -32.0266 77 92 89 255 
0.580755 -5.57387 -34.0554 122 120 108 255 
0.896514 -3.93669 -33.8192 136 146 155 255 
0.873278 -4.31409 -33.904 42 45 50 255 
0.736186 -4.89968 -33.6057 25 29 30 255 
-1.86276 -5.15335 -31.9392 54 48 36 255 
-1.9325 -5.3479 -31.867 78 92 92 255 
0.35879 -5.33047 -34.0188 37 43 43 255 
0.174448 -5.48477 -34.1302 78 75 68 255 
0.020103 -5.46682 -34.1322 77 74 67 255 
0.885858 -3.84319 -33.7734 162 171 180 255 
0.850467 -3.86617 -33.8856 41 50 55 255 
0.774122 -3.9657 -33.7148 26 30 39 255 
0.889274 -4.02266 -33.9813 108 112 121 255 
0.76968 -4.03829 -33.6721 21 25 28 255 
0.854892 -4.07284 -34.0191 38 39 41 255 
-0.098484 -3.60011 -31.408 96 85 80 255 
0.758499 -4.10995 -33.7289 17 21 24 255 
0.813516 -4.13597 -33.932 21 22 26 255 
0.761311 -4.24901 -33.8396 22 23 27 255 
0.736438 -4.24298 -33.8749 58 61 64 255 
0.978966 -4.33067 -33.804 47 52 56 255 
0.88756 -4.32424 -33.8368 61 65 68 255 
-1.27703 -3.84047 -31.8597 84 76 74 255 
0.80667 -4.40288 -33.8658 14 18 19 255 
0.792006 -4.3882 -33.8812 24 28 31 255 
0.612602 -4.35396 -33.9278 33 37 40 255 
0.802181 -4.56479 -33.7376 28 29 33 255 
0.756235 -4.60909 -33.9005 20 21 23 255 
0.757115 -4.69979 -33.879 8 9 11 255 
0.756952 -4.68253 -33.9193 38 39 41 255 
0.770471 -4.83207 -33.5086 91 96 100 255 
0.762227 -4.81353 -33.5538 80 85 89 255 
0.772923 -4.86853 -33.5378 32 36 35 255 
0.606951 -4.7514 -33.9608 54 58 59 255 
0.612893 -4.76825 -33.9686 13 19 19 255 
0.602138 -4.76631 -33.9631 69 75 75 255 
0.646276 -4.91721 -33.921 45 46 48 255 
-1.66201 -5.42369 -32.0489 55 67 65 255 
-1.75438 -5.35981 -32.0985 70 80 79 255 
-1.77045 -5.36251 -32.1436 61 65 66 255 
-1.64982 -5.51492 -32.0802 20 25 28 255 
-1.81372 -5.62228 -32.175 9 10 12 255 
-0.781476 -6.40778 -30.7057 85 86 70 255 
-1.94072 -5.71623 -32.2186 50 60 62 255 
0.645092 -5.39192 -33.6938 92 101 106 255 
-0.145904 -5.2724 -33.8004 13 14 18 255 
0.638408 -5.34193 -33.9575 169 161 150 255 
0.572171 -5.38867 -33.9978 118 115 100 255 
0.552622 -5.34666 -34.0406 34 41 47 255 
0.546956 -5.35308 -34.0495 36 40 43 255 
0.729962 -5.67729 -33.5028 149 149 139 255 
0.595451 -5.47276 -33.8623 138 123 102 255 
0.14255 -5.36246 -34.0527 130 137 133 255 
0.585264 -5.50227 -33.9712 147 139 120 255 
-0.079424 -5.48194 -34.0683 69 66 61 255 
0.203391 -5.51313 -34.0689 109 108 104 255 
0.180589 -5.46886 -34.1692 112 109 102 255 
0.122097 -5.48546 -34.1506 114 113 108 255 
0.585018 -5.59301 -34.0029 132 135 124 255 
0.56743 -5.52575 -34.1264 154 145 130 255 
0.175433 -5.50572 -34.1764 125 122 112 255 
0.752277 -5.78235 -33.7593 120 108 94 255 
0.748052 -5.76678 -33.795 35 26 20 255 
0.567594 -5.54619 -34.1337 81 79 66 255 
0.500192 -5.57089 -34.1277 84 87 80 255 
0.032667 -2.97963 -31.305 104 99 96 255 
0.034761 -2.99146 -31.2868 154 149 146 255 
-1.03485 -3.08173 -31.9394 46 32 32 255 
0.881181 -4.06453 -33.9859 102 105 110 255 
0.855146 -4.05048 -34.0357 51 52 54 255 
0.834628 -4.12254 -33.9814 40 41 43 255 
0.761074 -4.18419 -33.8118 10 14 17 255 
0.769416 -4.22855 -33.8216 11 15 18 255 
0.726207 -4.27923 -33.8937 45 46 50 255 
0.703218 -4.28317 -33.9154 45 46 48 255 
0.714274 -4.3228 -33.892 47 51 52 255 
0.638122 -4.36735 -33.9277 48 49 53 255 
0.799988 -4.53939 -33.7225 16 17 19 255 
0.824078 -4.67574 -33.7815 96 97 101 255 
0.632133 -4.65478 -33.9521 24 28 29 255 
0.723123 -4.88458 -33.7177 27 31 30 255 
0.539006 -4.89898 -33.9666 41 45 46 255 
0.545723 -4.89516 -33.9742 41 45 46 255 
-1.69813 -5.38026 -32.0366 68 80 76 255 
-1.85552 -5.31825 -32.0822 23 24 18 255 
0.549208 -4.9758 -33.9668 46 50 51 255 
-1.66404 -5.3761 -32.0957 31 40 35 255 
0.519912 -4.98821 -33.9801 7 12 15 255 
0.525264 -5.00199 -33.9904 47 52 55 255 
0.495188 -5.01493 -33.9868 38 42 45 255 
-1.66232 -5.60248 -32.0743 54 68 68 255 
0.474287 -5.05272 -33.9912 43 45 50 255 
-1.78068 -5.6296 -32.1219 5 14 13 255 
-1.75466 -5.60508 -32.1808 14 18 17 255 
-0.703448 -6.3888 -30.8798 121 124 103 255 
-1.80926 -5.74239 -32.0388 16 24 27 255 
-1.73569 -5.74977 -32.1737 43 53 54 255 
-1.83683 -5.74501 -32.1687 25 25 27 255 
0.009915 -6.40079 -31.1002 73 70 63 255 
-0.436453 -6.27043 -31.5414 79 81 78 255 
0.562103 -5.35751 -33.7126 37 42 46 255 
0.477591 -5.23507 -33.9736 25 29 30 255 
-0.160711 -5.29152 -33.7572 17 16 21 255 
0.471251 -5.30602 -33.9947 51 60 67 255 
0.50653 -5.38651 -33.8788 136 126 116 255 
0.365284 -6.38126 -32.1536 101 97 88 255 
0.823439 -5.71627 -33.5252 133 131 119 255 
0.809831 -5.68506 -33.6673 130 128 116 255 
0.719297 -5.68404 -33.676 146 145 140 255 
0.594843 -5.57351 -33.9095 174 178 164 255 
0.618266 -5.64792 -33.8382 80 95 90 255 
0.186728 -5.51137 -34.0659 120 119 115 255 
0.752386 -5.77202 -33.8009 30 21 12 255 
0.243952 -5.50109 -34.2233 137 137 127 255 
0.04898 -5.50081 -34.2271 76 72 69 255 
-0.976187 -2.44735 -31.8664 119 106 98 255 
-0.036867 -2.86561 -31.3426 149 138 132 255 
0.868014 -3.84979 -33.8028 116 124 134 255 
-0.822548 -2.8137 -31.8346 122 108 99 255 
0.130402 -3.1569 -31.2491 151 149 150 255 
0.83442 -3.88846 -33.9065 93 102 109 255 
0.801336 -3.87717 -33.8883 141 152 158 255 
0.872426 -3.92762 -33.8471 51 55 64 255 
0.806902 -4.11503 -33.8782 23 26 31 255 
0.753921 -4.16689 -33.6415 30 31 36 255 
0.752702 -4.16269 -33.8049 12 16 19 255 
0.787742 -4.544 -33.6416 16 17 19 255 
0.768974 -4.71703 -33.889 43 43 43 255 
0.654544 -4.71004 -33.9483 27 33 33 255 
0.602268 -4.72638 -33.963 49 53 56 255 
-1.66338 -5.17629 -32.217 24 26 23 255 
-1.76863 -5.36641 -32.1308 64 68 69 255 
-1.79007 -5.78005 -32.0356 8 18 19 255 
-1.88585 -5.69422 -32.1895 15 19 22 255 
-1.80154 -5.79826 -32.2027 42 47 50 255 
-1.80154 -5.79826 -32.2027 42 47 50 255 
0.600628 -5.37946 -33.7233 75 84 91 255 
-0.086857 -5.26911 -33.8387 153 152 148 255 
0.460802 -5.34644 -34.0471 42 48 48 255 
0.596965 -5.46458 -33.8818 171 156 135 255 
0.59286 -5.43563 -34.0871 124 120 108 255 
0.752533 -5.65683 -33.7532 159 156 147 255 
0.628311 -5.62506 -33.832 118 134 126 255 
0.152574 -5.50828 -34.0506 119 118 114 255 
-0.01154 -5.46988 -34.1147 129 126 119 255 
0.596305 -5.6331 -33.854 98 109 103 255 
0.584419 -5.49103 -34.1031 152 145 129 255 
0.188237 -5.52275 -34.065 73 72 67 255 
0.881396 -4.04925 -33.9919 73 76 81 255 
-0.176356 -3.58775 -31.4402 107 92 89 255 
0.841783 -4.09258 -33.8954 22 23 27 255 
0.794214 -4.4697 -33.6559 81 82 84 255 
0.617493 -4.51665 -33.9437 18 22 23 255 
0.619342 -4.57886 -33.9262 45 46 48 255 
-1.76281 -4.98884 -32.1249 83 97 97 255 
0.66461 -4.9 -33.9199 18 20 19 255 
0.663463 -4.90113 -33.9178 18 20 19 255 
-1.54248 -5.21897 -32.1169 66 70 69 255 
0.493872 -4.94674 -33.9854 16 17 21 255 
-1.74814 -5.62881 -32.1139 55 64 63 255 
-1.85025 -5.67347 -32.1903 56 60 63 255 
-1.93377 -5.74773 -32.2102 16 28 28 255 
-0.418529 -6.33481 -31.4708 110 107 102 255 
0.38577 -5.18387 -33.9607 19 23 26 255 
0.121731 -6.44216 -31.666 59 56 51 255 
0.644961 -5.40541 -33.6954 48 53 56 255 
0.750244 -5.58897 -33.4909 123 133 62 255 
0.611895 -5.61999 -33.7967 113 130 120 255 
0.008901 -5.41652 -34.146 82 79 74 255 
0.569996 -5.57846 -34.0354 145 141 129 255 
0.135089 -5.49184 -34.1459 140 137 132 255 
0.116131 -5.47456 -34.2719 103 100 95 255 
-0.089414 -3.57664 -31.3453 29 27 28 255 
0.779372 -4.09381 -34.0073 42 42 44 255 
0.642583 -4.29445 -33.9035 17 18 22 255 
0.746004 -4.40633 -33.861 25 26 28 255 
0.641719 -4.92787 -33.9273 18 19 21 255 
-1.79023 -5.63529 -32.1543 73 77 76 255 
-1.79087 -5.63308 -32.1536 73 77 76 255 
0.57979 -5.38973 -33.7208 36 41 45 255 
0.205107 -5.4868 -34.1848 116 113 104 255 
0.004132 -3.61114 -31.4432 152 148 147 255 
-1.75857 -5.63263 -32.0265 62 68 66 255 
-1.75857 -5.63263 -32.0265 62 68 66 255 
0.59165 -5.43619 -33.9034 166 153 136 255 
0.061943 -5.48894 -34.1271 108 105 100 255 
0.451038 -5.23477 -33.908 45 49 52 255 
0.605721 -5.50501 -33.8637 178 163 141 255 
0.391613 -4.18888 -33.7252 129 116 107 255 
0.250263 -3.55458 -33.5136 134 121 112 255 
0.000346 -3.04259 -31.278 112 103 104 255 
0.153608 -3.10491 -31.2069 91 89 92 255 
0.882582 -3.92227 -33.8709 93 97 100 255 
0.882582 -3.92227 -33.8709 93 97 100 255 
0.931291 -4.26011 -33.7346 80 81 85 255 
0.752835 -4.21238 -33.9128 58 59 61 255 
0.824379 -4.27987 -33.8006 73 77 80 255 
0.779704 -4.25711 -33.8229 89 93 96 255 
0.782496 -4.25903 -33.8269 89 93 96 255 
0.789927 -4.33226 -33.8645 75 76 80 255 
0.714105 -4.31379 -33.8579 7 8 10 255 
0.745716 -4.35068 -33.872 54 55 59 255 
0.737268 -4.38332 -33.8892 50 51 55 255 
0.678631 -4.39708 -33.9087 75 76 78 255 
0.673562 -4.48691 -33.9261 53 54 58 255 
0.667337 -4.49539 -33.9216 50 51 55 255 
0.633176 -4.58036 -33.9254 21 22 24 255 
0.811051 -4.68122 -33.8057 80 81 85 255 
0.795572 -4.66522 -33.8881 55 57 59 255 
0.750992 -4.66462 -33.9247 22 31 31 255 
0.617973 -4.7061 -33.9426 29 33 34 255 
0.776952 -4.85951 -33.5609 74 78 81 255 
0.686798 -4.84658 -33.9141 39 40 42 255 
0.658949 -4.92159 -33.8644 53 55 54 255 
0.644691 -4.9165 -33.9237 42 43 45 255 
0.533803 -4.91096 -33.9743 10 14 15 255 
-1.71873 -5.3362 -32.1891 16 22 21 255 
-0.019121 -5.30632 -33.7581 118 115 110 255 
0.631862 -5.41845 -33.7104 60 65 68 255 
0.508433 -5.42508 -33.6988 22 24 21 255 
0.656514 -5.45536 -33.7038 166 154 138 255 
0.655321 -5.45525 -33.7044 166 154 138 255 
0.637451 -5.43898 -33.7489 119 127 116 255 
0.625244 -5.44725 -33.7313 119 127 116 255 
0.425726 -5.35742 -34.0444 16 22 22 255 
0.654105 -5.6605 -33.5836 103 100 95 255 
0.603257 -5.56323 -33.824 122 125 114 255 
0.532599 -5.3751 -34.1101 124 126 115 255 
0.613019 -5.61505 -33.7786 40 46 34 255 
0.613019 -5.61505 -33.7786 40 46 34 255 
0.59833 -5.60011 -33.872 91 108 98 255 
0.708834 -6.45019 -32.6899 124 121 116 255 
0.395584 -5.50984 -34.1028 83 82 77 255 
0.277724 -5.51415 -34.1111 106 107 101 255 
0.127568 -5.48149 -34.1563 117 116 111 255 
0.170177 -5.50679 -34.135 74 71 64 255 
0.756559 -5.76679 -33.7964 86 77 70 255 
0.744061 -5.75673 -33.8333 80 70 58 255 
0.346856 -5.53507 -34.1558 74 70 61 255 
0.754174 -5.74618 -33.8958 29 19 9 255 
0.500163 -5.58225 -34.1164 78 83 79 255 
0.308565 -5.53598 -34.2371 91 91 81 255 
0.040579 -3.00736 -31.3202 157 151 151 255 
0.885348 -3.88102 -33.8649 127 136 145 255 
0.872945 -3.93513 -33.9406 36 45 54 255 
0.872945 -3.93513 -33.9406 36 45 54 255 
0.119006 -3.26968 -31.2495 118 114 115 255 
0.86863 -4.03663 -34.0206 36 39 41 255 
0.876953 -4.05551 -34.0116 69 70 74 255 
0.64263 -4.09124 -33.8949 49 44 40 255 
0.773389 -4.22103 -33.7959 17 18 22 255 
0.912308 -4.31256 -33.8255 54 58 59 255 
0.794247 -4.27409 -33.7923 62 66 69 255 
0.732261 -4.26007 -33.8701 5 9 12 255 
0.654417 -4.32353 -33.9128 14 15 17 255 
0.818165 -4.41881 -33.8508 19 23 24 255 
0.745982 -4.38304 -33.8789 56 57 59 255 
0.805085 -4.56858 -33.7258 101 102 106 255 
0.681156 -4.53319 -33.9151 76 77 79 255 
0.743142 -4.76549 -33.508 12 16 15 255 
0.609835 -4.64062 -33.9646 42 46 47 255 
0.652852 -4.69915 -33.9507 56 67 65 255 
0.708816 -4.80604 -33.9042 19 23 24 255 
0.689135 -4.85217 -33.9095 8 9 11 255 
0.635201 -4.80493 -33.9528 48 52 53 255 
-1.59527 -4.97375 -32.0747 42 54 50 255 
0.633257 -4.92205 -33.9415 15 19 20 255 
0.522972 -4.95538 -33.9767 47 51 54 255 
0.509885 -4.95676 -33.9824 19 23 26 255 
-1.65672 -5.61948 -32.0371 61 67 65 255 
-1.76682 -5.77443 -32.0954 47 57 58 255 
-0.001531 -6.42552 -31.451 63 60 51 255 
-0.414029 -6.29051 -31.5699 84 81 80 255 
0.477958 -5.19385 -33.9844 7 12 15 255 
0.209692 -5.31941 -34.0434 168 177 172 255 
0.616589 -5.50885 -33.8435 149 134 115 255 
0.602572 -5.53486 -33.8653 129 115 102 255 
0.584724 -5.51094 -33.9586 99 88 70 255 
0.556068 -5.58765 -34.1224 165 168 159 255 
0.311868 -5.51519 -34.2481 79 79 69 255 
-0.466458 -2.71799 -31.6056 117 107 98 255 
0.610325 -4.34854 -33.9028 12 16 19 255 
-0.123428 -4.66627 -31.4236 105 105 107 255 
0.58072 -4.89033 -33.9705 11 17 17 255 
0.510703 -5.04202 -33.9882 40 41 43 255 
0.617114 -5.65727 -33.5506 95 91 82 255 
0.559456 -5.35234 -34.0227 35 35 37 255 
0.762785 -5.67981 -33.5437 160 160 152 255 
0.762785 -5.67981 -33.5437 160 160 152 255 
0.587622 -5.44994 -33.9706 155 144 124 255 
0.453455 -5.3505 -34.0861 69 80 74 255 
0.396284 -5.35575 -34.0847 105 112 104 255 
0.636051 -5.64094 -33.7318 137 143 131 255 
0.102688 -5.49424 -34.0687 122 119 110 255 
0.570738 -5.5292 -34.1061 166 159 143 255 
-0.370391 -2.71138 -31.6001 119 109 100 255 
0.769307 -4.08947 -33.9915 45 46 48 255 
0.734886 -4.30333 -33.8811 34 38 39 255 
0.629982 -4.45831 -33.9367 48 52 55 255 
-0.142492 -4.64506 -31.4314 40 42 41 255 
0.794115 -4.73054 -33.7533 15 16 18 255 
-1.40658 -5.23895 -32.0914 28 29 21 255 
0.642121 -4.93489 -33.9054 38 39 41 255 
0.495752 -5.07258 -33.9866 30 34 35 255 
-0.008912 -5.29241 -33.7847 69 66 61 255 
0.461695 -5.25347 -33.9889 49 54 57 255 
0.232429 -6.42023 -31.9092 115 111 102 255 
0.627112 -5.57664 -33.7637 125 129 115 255 
-0.100348 -5.47337 -34.005 103 102 97 255 
0.581273 -5.55175 -34.014 135 133 120 255 
-0.934343 -2.7867 -31.6855 137 124 115 255 
0.640894 -4.75631 -33.9508 36 40 41 255 
0.416502 -4.16477 -33.7144 38 38 38 255 
0.779825 -4.69435 -33.8621 78 79 81 255 
0.751814 -4.74087 -33.6895 17 17 19 255 
0.111863 -3.06888 -31.2001 149 147 150 255 
0.424289 -4.17058 -33.7217 37 37 37 255 
-1.66729 -5.43534 -32.0918 16 22 22 255 
0.094714 -2.6589 -31.2115 122 116 116 255 
-0.749202 -2.54506 -31.7993 99 86 78 255 
-0.763849 -2.72895 -31.7819 105 90 83 255 
0.154189 -3.10472 -31.2044 86 84 87 255 
0.860537 -3.85296 -33.6695 126 133 143 255 
0.149718 -3.33893 -31.3226 142 141 139 255 
0.767935 -4.24786 -33.8393 66 67 71 255 
0.716847 -4.40382 -33.9151 56 60 63 255 
0.800057 -4.54104 -33.7221 23 24 26 255 
0.775642 -4.62969 -33.8845 23 24 26 255 
0.820371 -4.6834 -33.7832 45 46 48 255 
0.73271 -4.84969 -33.5885 38 42 43 255 
-1.63429 -5.9325 -31.3737 42 41 23 255 
0.461158 -5.19462 -33.9983 73 78 81 255 
0.461158 -5.19462 -33.9983 73 78 81 255 
-1.69277 -5.84432 -32.2775 13 17 18 255 
0.427978 -5.2762 -34.0138 40 50 52 255 
0.386063 -6.42248 -32.1345 47 44 37 255 
0.484691 -5.32767 -34.0587 49 60 64 255 
0.377122 -5.35667 -34.0642 147 158 150 255 
0.585067 -5.52485 -33.9406 112 103 86 255 
0.573492 -5.50237 -34.1183 125 116 101 255 
0.776448 -5.64942 -34.0111 16 16 18 255 
0.310261 -5.51953 -34.2331 70 70 60 255 
-0.658182 -2.644 -31.7857 145 132 124 255 
-0.76333 -2.6785 -31.8209 112 99 91 255 
0.17209 -3.17415 -31.3082 102 100 101 255 
0.854992 -4.00856 -34.0105 87 92 96 255 
-1.05082 -3.33666 -31.8007 118 112 112 255 
0.731565 -4.31584 -33.8952 14 18 19 255 
0.569048 -4.59657 -33.9199 46 50 51 255 
0.812336 -4.70932 -33.8206 79 80 82 255 
0.789837 -4.68537 -33.8722 66 67 69 255 
0.757415 -4.84886 -33.5668 40 45 48 255 
0.65216 -4.91252 -33.7483 23 24 26 255 
0.578258 -4.849 -33.9724 32 33 35 255 
0.586601 -4.92158 -33.9775 16 20 21 255 
0.560263 -4.97357 -33.9821 37 41 42 255 
0.494713 -4.96996 -33.9759 20 24 27 255 
0.464541 -5.00492 -33.9902 46 51 54 255 
-0.167195 -6.40073 -31.1556 75 78 58 255 
0.493065 -5.33657 -34.0479 36 46 51 255 
0.842304 -5.69705 -33.5123 83 79 73 255 
0.583729 -5.4786 -33.9899 136 128 109 255 
-0.028905 -5.49104 -34.0258 125 122 115 255 
0.761765 -5.69417 -33.8979 6 5 3 255 
0.760736 -4.17206 -33.8159 6 10 13 255 
0.752374 -4.49516 -33.8637 68 72 73 255 
0.681104 -4.60279 -33.948 26 30 33 255 
0.657971 -4.61764 -33.9568 45 49 52 255 
0.640123 -4.76234 -33.9566 33 37 38 255 
0.692331 -4.79075 -33.9224 25 26 28 255 
0.776719 -4.4618 -33.8536 33 33 35 255 
0.80493 -4.52109 -33.7724 40 41 43 255 
0.791571 -4.52931 -33.811 64 68 69 255 
0.563589 -4.63849 -33.9453 53 57 60 255 
-1.50546 -5.23957 -32.0493 46 49 42 255 
-0.02296 -6.45132 -31.4433 110 107 98 255 
0.597984 -5.60155 -33.8824 132 142 133 255 
0.685122 -4.06615 -33.9391 124 111 102 255 
0.685186 -4.06488 -33.9366 124 111 102 255 
0.717434 -4.31124 -33.8886 20 21 23 255 
0.7116 -4.71724 -33.9309 42 43 45 255 
0.275105 -6.41611 -31.7316 64 61 56 255 
0.630133 -5.5511 -33.7444 160 153 137 255 
0.608537 -5.5902 -34.1183 154 161 154 255 
0.583965 -4.20568 -33.525 57 58 60 255 
0.185584 -3.05227 -31.1434 140 135 139 255 
0.121893 -3.26222 -31.1164 135 133 134 255 
0.006 -3.80718 -31.2775 122 117 114 255 
0.747004 -4.21274 -33.8573 10 11 15 255 
0.153699 -4.90295 -29.1861 119 70 62 255 
0.804096 -4.57251 -33.784 88 89 91 255 
0.775454 -4.85907 -33.5555 76 80 83 255 
0.561519 -4.98614 -33.9717 8 12 13 255 
-1.69638 -5.51926 -32.013 60 64 65 255 
0.505932 -5.0412 -33.9983 10 14 15 255 
-1.71868 -5.61083 -32.0403 51 61 62 255 
-0.062885 -5.30162 -33.6896 70 67 60 255 
0.187123 -6.43111 -31.7523 82 80 71 255 
0.65641 -5.44661 -33.7262 133 131 118 255 
0.589865 -5.4188 -33.7616 123 120 111 255 
0.505975 -6.44851 -32.3498 93 90 85 255 
0.66287 -5.61633 -33.8746 84 101 95 255 
0.283111 -5.52005 -34.131 96 92 89 255 
0.559937 -5.55439 -34.1255 66 62 51 255 
0.88438 -4.02634 -34.0034 84 89 98 255 
0.760479 -4.13947 -33.6898 80 81 83 255 
0.742736 -4.28456 -33.8667 62 63 67 255 
0.388548 -4.23709 -33.7215 84 84 84 255 
0.745991 -4.38296 -33.8796 46 47 49 255 
0.781248 -4.68785 -33.8854 35 35 35 255 
0.687896 -4.85391 -33.9054 9 11 10 255 
0.615077 -4.97975 -33.9349 43 47 48 255 
0.507995 -4.9638 -33.972 38 42 45 255 
0.518785 -5.00394 -33.9833 39 40 42 255 
-0.05948 -5.31719 -33.634 67 64 59 255 
0.57607 -5.395 -34.0071 127 129 116 255 
0.790594 -5.66683 -33.6432 124 120 111 255 
0.610597 -5.61251 -33.9122 110 113 102 255 
0.769818 -5.66871 -33.8939 133 133 123 255 
0.650253 -5.61903 -33.9319 97 110 103 255 
-0.682651 -2.51674 -31.7168 131 118 110 255 
0.820582 -4.05217 -34.0267 73 77 80 255 
0.792165 -4.40063 -33.8791 21 23 27 255 
0.51004 -4.9312 -33.9797 15 16 18 255 
0.536783 -5.39204 -33.95 136 132 120 255 
0.082538 -5.49815 -34.0942 69 66 59 255 
0.847077 -4.07571 -34.0127 57 58 60 255 
0.782216 -4.32294 -33.8651 63 64 68 255 
-0.35568 -6.42314 -31.3202 95 92 87 255 
0.610317 -5.60611 -33.9994 127 137 129 255 
-0.411112 -2.66211 -31.5487 141 130 124 255 
-0.411112 -2.66211 -31.5487 141 130 124 255 
0.728538 -4.3919 -33.8862 54 55 59 255 
0.728538 -4.3919 -33.8862 54 55 59 255 
0.571431 -4.89916 -33.9651 10 14 15 255 
0.609361 -5.4164 -33.8141 178 170 160 255 
0.602149 -5.41518 -33.8214 177 170 162 255 
0.597921 -5.48001 -33.8835 134 118 102 255 
0.620562 -5.62085 -33.7655 84 87 78 255 
0.732064 -5.6598 -33.7613 190 186 175 255 
0.625898 -5.62977 -33.7562 52 57 50 255 
0.58823 -5.51181 -33.95 151 139 123 255 
0.764757 -5.87728 -33.6306 68 64 61 255 
0.073506 -5.50374 -34.1051 95 92 87 255 
0.60196 -5.59266 -34.0906 109 120 116 255 
0.790578 -4.28235 -33.7943 10 14 17 255 
0.638608 -4.60887 -33.9408 17 21 22 255 
0.737054 -4.7868 -33.554 65 68 73 255 
0.61516 -4.71818 -33.9536 44 48 49 255 
-0.286101 -6.4253 -30.9539 65 62 53 255 
0.461156 -5.30874 -34.0048 84 93 98 255 
0.835279 -5.72453 -33.5072 125 120 116 255 
0.533033 -4.97748 -33.9807 13 17 18 255 
-0.106263 -5.2774 -33.8567 72 71 69 255 
0.81239 -5.69907 -33.5077 155 152 146 255 
0.68087 -5.64422 -33.5324 126 123 118 255 
0.244483 -5.51064 -34.1926 114 113 108 255 
0.327254 -6.39519 -31.7652 62 58 55 255 
0.595012 -5.53051 -33.914 157 149 136 255 
0.867459 -3.91698 -33.9276 128 137 144 255 
0.875703 -3.93639 -33.9431 48 57 64 255 
0.874714 -4.06458 -34.0056 51 55 58 255 
0.79493 -4.09245 -33.8265 51 54 59 255 
0.807698 -4.11633 -33.8817 16 20 23 255 
0.944091 -4.26525 -33.7323 107 101 101 255 
0.770426 -4.19718 -33.6453 18 23 27 255 
0.781025 -4.19713 -33.7792 39 40 44 255 
0.778061 -4.19616 -33.7751 39 40 44 255 
0.754846 -4.19819 -33.8501 90 91 93 255 
0.756768 -4.20846 -33.8568 88 89 91 255 
0.753818 -4.19739 -33.9003 67 68 70 255 
0.779591 -4.26534 -33.8148 29 34 37 255 
0.749128 -4.25299 -33.8557 70 71 73 255 
0.681269 -4.19765 -33.9244 54 55 57 255 
0.503209 -4.22469 -33.7966 28 28 30 255 
0.669181 -4.3672 -33.8878 22 23 25 255 
0.722334 -4.40019 -33.895 54 58 61 255 
0.82198 -4.46836 -33.7757 17 18 20 255 
0.768491 -4.54594 -33.6309 114 115 117 255 
0.79924 -4.54915 -33.7282 104 105 107 255 
0.792477 -4.58478 -33.7764 41 45 46 255 
0.792398 -4.56847 -33.8023 115 116 118 255 
0.796805 -4.61673 -33.8481 96 100 103 255 
0.765748 -4.61712 -33.8924 44 45 49 255 
0.750313 -4.60606 -33.9164 77 81 82 255 
0.64531 -4.58412 -33.9333 64 68 71 255 
0.752016 -4.61194 -33.9108 21 22 24 255 
0.712123 -4.61709 -33.949 67 71 74 255 
0.69507 -4.59485 -33.9413 33 37 38 255 
0.670729 -4.61347 -33.9482 31 35 38 255 
0.621957 -4.60389 -33.9309 64 65 69 255 
0.587287 -4.59321 -33.9157 20 24 25 255 
0.726477 -4.72828 -33.505 31 36 40 255 
0.774389 -4.67738 -33.9322 42 46 47 255 
-1.35896 -4.76482 -32.0496 89 90 94 255 
0.712779 -4.84644 -33.6571 82 86 85 255 
-1.61164 -4.97113 -32.0332 68 83 78 255 
0.587059 -4.79675 -33.9648 59 63 64 255 
0.696025 -4.95591 -33.7105 60 64 63 255 
0.690217 -4.95796 -33.7015 60 64 63 255 
0.63567 -4.91948 -33.9647 52 56 57 255 
0.585119 -4.92877 -33.9776 19 20 22 255 
0.569629 -4.9056 -33.986 49 55 55 255 
-1.71809 -5.36369 -32.1464 24 36 32 255 
0.518294 -5.01416 -34.0032 17 21 24 255 
0.558518 -5.26487 -33.6556 81 85 88 255 
-0.650415 -6.39652 -30.9324 93 91 78 255 
-1.95312 -5.80134 -32.3588 21 21 21 255 
-0.091478 -5.27226 -33.9668 165 164 159 255 
-0.046149 -5.23864 -34.0448 87 85 73 255 
0.402483 -5.29118 -34.0339 42 50 52 255 
0.328407 -5.31736 -34.0042 104 110 106 255 
0.834868 -3.84083 -33.6802 183 188 194 255 
0.826758 -3.83566 -33.6695 183 188 194 255 
0.864584 -3.90684 -33.8138 21 25 28 255 
-0.320491 -3.28424 -31.5373 172 148 156 255 
-0.3242 -3.28251 -31.5306 172 148 156 255 
0.782008 -3.94589 -33.6965 33 36 45 255 
0.768598 -3.96265 -33.7067 37 42 51 255 
0.788467 -4.0028 -33.6947 106 110 113 255 
0.773836 -3.97073 -33.7029 87 94 102 255 
0.876349 -4.07258 -33.9853 37 40 45 255 
0.827696 -4.11432 -33.9917 15 16 18 255 
-1.27832 -3.47448 -32.0793 107 93 82 255 
0.937285 -4.2681 -33.7371 31 31 33 255 
0.750073 -4.21282 -33.8604 17 18 20 255 
0.753321 -4.21008 -33.8994 28 29 31 255 
0.81476 -4.27508 -33.8005 35 39 42 255 
0.950731 -4.33835 -33.8132 77 82 85 255 
0.784644 -4.27484 -33.8009 75 79 82 255 
0.787358 -4.27531 -33.805 75 79 82 255 
0.797707 -4.39444 -33.8986 102 103 105 255 
0.684091 -4.44829 -33.8966 29 30 32 255 
0.665618 -4.44217 -33.9011 31 32 34 255 
0.642038 -4.43515 -33.9261 70 74 75 255 
0.64657 -4.46514 -33.9415 25 29 30 255 
0.782334 -4.55184 -33.6647 25 26 28 255 
0.761615 -4.52708 -33.8182 54 58 59 255 
0.589683 -4.48097 -33.9519 19 20 22 255 
0.801751 -4.59413 -33.7751 5 9 10 255 
0.680028 -4.59207 -33.9325 26 31 31 255 
0.690773 -4.60306 -33.9583 33 37 38 255 
0.730102 -4.75605 -33.5074 130 135 138 255 
0.689961 -4.63978 -33.952 94 98 99 255 
0.738668 -4.79541 -33.4643 103 110 111 255 
0.735299 -4.76724 -33.5295 20 30 32 255 
0.711468 -4.74918 -33.7628 14 15 17 255 
0.720122 -4.7605 -33.8029 49 51 50 255 
-1.7334 -4.91188 -32.142 71 81 83 255 
0.705271 -4.91473 -33.6822 35 39 38 255 
0.719298 -4.88984 -33.7124 39 43 42 255 
0.698925 -4.83416 -33.908 31 34 33 255 
0.700418 -4.95575 -33.6834 70 75 71 255 
0.614227 -4.89638 -33.9707 34 40 40 255 
0.563045 -4.87812 -33.9698 11 15 16 255 
0.568003 -4.87809 -33.9752 11 15 16 255 
-1.54379 -5.19361 -32.191 36 41 34 255 
0.551514 -5.31804 -33.6528 21 31 33 255 
0.547551 -5.31248 -33.6792 47 52 56 255 
0.090254 -5.2896 -33.8307 93 90 83 255 
0.050999 -5.2927 -33.8427 177 173 162 255 
-0.113082 -5.24655 -33.966 130 132 131 255 
0.442505 -5.23268 -34.0494 35 43 46 255 
0.660274 -5.45127 -33.6607 151 145 131 255 
0.664455 -5.45003 -33.7122 171 163 144 255 
0.487994 -5.31404 -33.9979 56 69 74 255 
0.206577 -5.31524 -34.0541 125 138 131 255 
0.694817 -5.63095 -33.4519 123 124 119 255 
0.670145 -5.71061 -33.4224 72 72 62 255 
0.624095 -5.62657 -33.6495 122 114 103 255 
0.59459 -5.54589 -33.8973 174 169 154 255 
0.588748 -5.4741 -34.0451 168 160 141 255 
-0.486355 -2.70369 -31.5724 140 130 121 255 
0.118238 -3.12351 -31.223 146 144 145 255 
-0.080523 -3.04028 -31.3227 137 134 130 255 
0.849366 -3.85512 -33.861 112 112 115 255 
0.880194 -3.9009 -33.8222 75 80 84 255 
-1.12188 -2.74274 -31.9565 136 123 107 255 
0.867822 -3.92604 -33.8344 41 45 48 255 
-0.29655 -3.29005 -31.5051 176 165 173 255 
0.887424 -4.02992 -33.9931 74 81 89 255 
0.782252 -3.97851 -33.6713 37 41 44 255 
0.764583 -3.98226 -33.6421 75 79 82 255 
0.764263 -3.98086 -33.7322 47 50 59 255 
0.772947 -3.98579 -33.7109 40 45 49 255 
0.81909 -4.05268 -34.0247 90 91 93 255 
0.826269 -4.05726 -34.0351 90 91 93 255 
0.856299 -4.09373 -33.9548 73 74 76 255 
0.815789 -4.10889 -33.8696 86 89 94 255 
0.802087 -4.12834 -33.902 75 79 82 255 
0.833531 -4.11406 -33.9757 43 44 46 255 
0.782865 -4.09513 -34.0114 54 54 56 255 
0.747454 -4.13821 -33.7214 40 44 47 255 
0.79817 -4.26029 -33.793 116 120 123 255 
0.706378 -4.20974 -33.9299 16 20 21 255 
-0.102477 -4.07837 -31.3525 80 79 77 255 
-0.065552 -4.11994 -31.3732 108 108 110 255 
0.938804 -4.35588 -33.6644 24 15 10 255 
0.790451 -4.31928 -33.8008 65 69 72 255 
0.788504 -4.35702 -33.865 94 99 102 255 
0.756891 -4.46328 -33.5308 22 26 29 255 
0.822084 -4.44895 -33.7697 47 48 50 255 
0.781479 -4.50093 -33.6542 50 51 53 255 
0.79882 -4.49474 -33.7422 24 25 27 255 
0.812241 -4.46061 -33.8164 65 66 68 255 
0.651669 -4.416 -33.919 51 55 56 255 
0.797541 -4.49785 -33.8333 57 63 61 255 
0.744956 -4.49234 -33.8698 55 57 56 255 
0.685848 -4.54346 -33.9118 88 92 93 255 
0.618815 -4.56603 -33.9224 23 24 26 255 
0.763636 -4.62247 -33.897 44 48 51 255 
0.804069 -4.71759 -33.7529 85 86 88 255 
0.797509 -4.69004 -33.864 14 18 19 255 
0.748547 -4.74842 -33.6511 71 72 74 255 
0.710176 -4.75548 -33.7803 45 46 48 255 
0.734018 -4.87884 -33.5951 18 22 21 255 
0.599897 -4.80262 -33.9716 19 23 24 255 
-1.68012 -5.00831 -32.0998 97 113 110 255 
0.632683 -4.94412 -33.928 54 55 57 255 
0.621697 -4.97925 -33.908 80 84 83 255 
0.621039 -4.96342 -33.9411 60 64 65 255 
-1.74762 -5.37941 -32.1583 18 22 25 255 
-1.97157 -5.34209 -32.2362 47 41 41 255 
0.53179 -4.97673 -33.975 24 28 29 255 
-1.91032 -5.69691 -32.203 44 51 52 255 
-0.01595 -5.27259 -33.7604 134 133 131 255 
0.551647 -5.324 -33.6672 78 82 85 255 
0.551102 -5.31896 -33.6926 70 74 77 255 
0.580589 -5.40636 -33.6067 90 91 93 255 
0.017608 -5.27688 -33.9402 187 184 175 255 
0.481486 -5.32551 -34.0496 67 78 82 255 
0.645212 -5.52668 -33.7208 167 155 133 255 
0.599396 -5.4528 -33.8341 184 169 150 255 
-0.175847 -5.38951 -34.0101 96 95 91 255 
0.605095 -5.65553 -33.5343 94 90 81 255 
0.619876 -5.61532 -33.6149 129 120 105 255 
0.591983 -5.45564 -33.9161 145 130 111 255 
0.582161 -5.41628 -34.0073 133 126 107 255 
0.676862 -5.66342 -33.5967 130 129 125 255 
0.619097 -5.54641 -33.8043 125 116 99 255 
0.586869 -5.47502 -33.9628 176 165 143 255 
0.62633 -5.63136 -33.8073 125 145 134 255 
-0.502718 -2.75225 -31.5648 142 132 123 255 
0.774805 -3.9581 -33.6995 14 18 27 255 
0.754854 -4.06676 -33.7238 59 63 66 255 
0.81527 -4.12076 -33.9104 80 84 87 255 
0.926863 -4.27602 -33.7287 130 130 132 255 
0.600006 -4.17162 -33.8789 36 38 35 255 
0.945854 -4.349 -33.694 158 158 160 255 
0.663849 -4.25876 -33.918 30 34 37 255 
0.444341 -4.1903 -33.7457 62 63 65 255 
0.73651 -4.33198 -33.8918 83 87 88 255 
0.606683 -4.41317 -33.9495 50 51 53 255 
0.776988 -4.5164 -33.8438 21 25 26 255 
0.804295 -4.62505 -33.8308 127 131 134 255 
0.723557 -4.59462 -33.9267 125 135 134 255 
0.725725 -4.75581 -33.5205 20 28 31 255 
0.745274 -4.72367 -33.8788 21 21 21 255 
0.688646 -4.77855 -33.9104 29 31 30 255 
0.646754 -4.7572 -33.9587 45 49 50 255 
-1.67185 -5.20613 -32.194 82 88 84 255 
0.625549 -4.97126 -33.926 28 32 31 255 
0.597216 -4.99945 -33.8731 52 49 57 255 
0.612593 -4.99271 -33.9242 27 31 32 255 
0.602681 -5.01059 -33.9094 76 80 81 255 
0.559345 -5.26193 -33.6783 25 29 32 255 
0.558391 -5.28249 -33.6714 99 103 106 255 
0.551518 -5.30469 -33.6699 91 96 100 255 
0.425833 -5.38257 -33.8452 87 83 72 255 
0.324822 -5.31726 -34.0046 101 107 103 255 
-0.629341 -2.6273 -31.6501 150 140 128 255 
0.819953 -3.88464 -33.9154 181 185 186 255 
-0.314666 -3.24178 -31.5306 156 168 168 255 
-0.353573 -3.20939 -31.5337 71 44 59 255 
-0.263351 -3.30615 -31.5084 81 40 56 255 
1.08515 -4.17439 -34.5981 88 33 42 255 
0.86078 -4.0665 -33.9559 47 50 55 255 
-0.28719 -3.56223 -31.5169 142 127 120 255 
0.752928 -4.03229 -33.6282 167 168 170 255 
0.73956 -4.14049 -33.6035 143 137 132 255 
0.753039 -4.17136 -33.9513 13 13 13 255 
0.91502 -4.29382 -33.7316 30 35 38 255 
0.854546 -4.2755 -33.8181 36 39 44 255 
0.976057 -4.34579 -33.7673 56 59 64 255 
0.971546 -4.33717 -33.8049 39 43 46 255 
0.83552 -4.29241 -33.8056 20 24 27 255 
0.747529 -4.27119 -33.8526 79 83 84 255 
0.747737 -4.27333 -33.8538 79 83 84 255 
0.718718 -4.31149 -33.8906 29 29 31 255 
0.819737 -4.46744 -33.8064 16 17 19 255 
0.780361 -4.51388 -33.6616 89 90 92 255 
0.745431 -4.6548 -33.926 84 93 92 255 
-1.48519 -4.85196 -31.9652 69 74 77 255 
0.680073 -4.76632 -33.9403 41 43 42 255 
0.721588 -4.93525 -33.7084 33 37 35 255 
0.638347 -4.9286 -33.924 23 24 26 255 
0.546173 -5.28677 -33.6886 16 17 19 255 
0.59716 -5.38319 -33.6623 110 115 119 255 
0.436171 -5.25149 -34.0013 61 69 72 255 
-0.087079 -5.28016 -33.9721 182 179 170 255 
-0.076584 -5.27609 -33.9797 182 179 170 255 
-0.106879 -5.2778 -33.9906 99 95 84 255 
0.650314 -5.53677 -33.6789 179 166 147 255 
0.677549 -5.67793 -33.5255 130 129 124 255 
0.637107 -5.65747 -33.5804 181 178 172 255 
0.615579 -5.54561 -33.8346 172 165 149 255 
-0.294426 -3.30482 -31.5403 158 164 167 255 
0.741662 -4.05929 -33.9947 215 212 205 255 
-0.032319 -4.08755 -31.2825 110 102 100 255 
0.770911 -4.29169 -33.8426 27 31 34 255 
0.682734 -4.30469 -33.9076 20 21 23 255 
0.804771 -4.35711 -33.8581 88 89 91 255 
-0.258159 -4.63401 -31.5065 116 116 119 255 
0.808175 -4.64255 -33.8219 68 72 75 255 
0.695149 -4.65113 -33.9436 69 73 76 255 
0.728861 -4.8504 -33.7104 36 38 37 255 
0.586452 -4.7601 -33.9616 65 69 70 255 
-1.73508 -4.9118 -32.157 66 76 78 255 
0.629763 -4.94695 -33.8655 31 32 27 255 
-0.534622 -6.3699 -31.2307 46 46 32 255 
0.648573 -5.50644 -33.7151 126 114 92 255 
0.738467 -5.66739 -33.6803 178 176 169 255 
0.773623 -4.15834 -33.8878 24 25 27 255 
0.517418 -4.46729 -33.9105 108 109 111 255 
0.517418 -4.46729 -33.9105 108 109 111 255 
0.722978 -4.75341 -33.7659 16 17 19 255 
0.68782 -4.8649 -33.8753 47 49 48 255 
0.565257 -5.34479 -33.7017 101 106 110 255 
0.565257 -5.34479 -33.7017 101 106 110 255 
0.433189 -5.31293 -33.7253 25 27 26 255 
0.588763 -5.40654 -34.0316 124 119 100 255 
0.876528 -3.93587 -33.9086 118 125 131 255 
0.789241 -4.05456 -34.0162 43 43 43 255 
0.770505 -4.1572 -33.9622 20 20 22 255 
0.815806 -4.48461 -33.8009 23 24 26 255 
0.807209 -4.50516 -33.8357 84 90 90 255 
0.610209 -4.46574 -33.9455 21 22 25 255 
0.762658 -4.73729 -33.7098 23 24 26 255 
0.777097 -4.71409 -33.8198 20 22 21 255 
0.416877 -5.36599 -33.8691 113 111 98 255 
0.418814 -5.36465 -33.8713 113 111 98 255 
-0.135197 -5.3131 -33.9943 143 142 138 255 
0.541803 -5.37453 -34.0582 25 29 30 255 
0.831961 -3.83618 -33.7009 36 39 44 255 
-0.032638 -3.86178 -31.1932 163 158 154 255 
0.903859 -4.26796 -33.6681 31 31 33 255 
0.721509 -4.58101 -33.927 101 110 109 255 
0.694875 -5.64069 -33.5333 143 140 133 255 
0.653974 -4.46274 -33.9264 57 61 62 255 
0.656667 -4.46243 -33.9291 57 61 62 255 
0.636006 -4.87699 -33.9519 65 71 71 255 
0.55369 -5.37531 -33.6623 107 112 118 255 
0.897942 -3.94038 -33.8167 165 176 182 255 
0.896069 -3.9407 -33.8154 165 176 182 255 
0.457971 -5.15696 -33.7717 83 72 50 255 
0.7971 -4.0026 -33.6267 160 170 172 255 
-0.109549 -4.13854 -31.2498 58 56 57 255 
0.717758 -4.11826 -33.4559 149 139 127 255 
0.345839 -4.11539 -33.7326 152 135 125 255 
-0.45558 -2.82074 -31.59 139 129 119 255 
0.826365 -3.84726 -33.6661 158 161 166 255 
0.866785 -3.95815 -33.9674 67 74 84 255 
0.857226 -3.9968 -34.0017 95 98 103 255 
-0.271923 -3.57166 -31.6871 127 117 115 255 
0.739614 -4.10509 -33.7376 68 72 75 255 
0.969923 -4.35439 -33.7742 40 44 47 255 
0.80524 -4.39775 -33.8531 91 95 96 255 
0.729075 -4.3986 -33.8896 33 34 38 255 
0.714907 -4.39303 -33.9078 70 74 77 255 
0.600896 -4.40189 -33.9327 47 48 50 255 
0.798416 -4.52696 -33.7297 93 94 96 255 
0.628381 -4.434 -33.9259 24 28 29 255 
0.62777 -4.44398 -33.9391 20 24 27 255 
0.738827 -4.53478 -33.8723 62 64 63 255 
0.800367 -4.61875 -33.7544 110 111 115 255 
0.577456 -4.6282 -33.9504 40 41 45 255 
0.749491 -4.79543 -33.5051 93 98 101 255 
0.595265 -4.83167 -33.9753 21 25 26 255 
0.545077 -4.9133 -33.9802 33 37 38 255 
0.407757 -5.17178 -34.0143 61 65 68 255 
0.393707 -5.36284 -33.6998 105 112 105 255 
-0.030305 -5.21438 -34.0572 83 83 85 255 
-0.029338 -5.21468 -34.058 83 83 85 255 
0.618446 -5.42831 -33.7258 46 50 53 255 
0.554753 -5.39542 -33.8868 156 147 132 255 
0.475975 -5.34177 -34.0499 85 96 98 255 
0.625879 -5.60966 -33.7453 146 144 132 255 
0.578943 -5.57146 -34.0002 129 132 121 255 
0.787821 -3.97725 -33.7272 94 99 105 255 
0.773819 -3.98594 -33.712 28 33 37 255 
0.925867 -4.30219 -33.7441 12 16 19 255 
0.738512 -4.21303 -33.8474 17 18 20 255 
0.721767 -4.76354 -33.5482 13 18 22 255 
0.775325 -4.81775 -33.5478 91 94 99 255 
0.411005 -5.10419 -33.9651 49 53 56 255 
0.50869 -5.1591 -33.9528 50 51 53 255 
-0.117325 -5.2937 -33.733 126 126 124 255 
-0.105037 -5.25209 -33.918 74 74 74 255 
0.662741 -5.41925 -33.6948 48 50 49 255 
0.376487 -5.26751 -34.012 59 64 67 255 
0.574032 -5.43266 -33.7309 137 135 122 255 
0.423512 -5.37862 -33.8277 102 99 92 255 
0.389659 -5.28894 -34.0342 72 78 74 255 
0.62355 -5.44075 -33.7904 151 142 127 255 
0.609244 -5.64775 -33.6136 94 90 81 255 
0.653602 -5.58634 -33.6931 124 116 105 255 
0.632053 -5.60178 -33.7052 162 158 146 255 
-0.282207 -2.75571 -31.4953 141 131 122 255 
0.028772 -2.92035 -31.2836 143 138 134 255 
0.887263 -3.8837 -33.8507 129 137 148 255 
0.862254 -3.86361 -33.8418 120 129 138 255 
0.859797 -3.88141 -33.7721 164 170 177 255 
0.873911 -4.05471 -34.0069 79 80 84 255 
0.789012 -4.06177 -34.0075 23 24 26 255 
-1.16294 -3.40175 -31.9395 152 138 127 255 
0.823459 -4.25646 -33.7887 112 116 119 255 
0.81328 -4.25304 -33.7726 112 116 119 255 
0.882707 -4.34727 -33.828 23 27 30 255 
0.455112 -4.20153 -33.7397 96 97 101 255 
0.754049 -4.40433 -33.8745 31 32 34 255 
0.763147 -4.4057 -33.8873 31 32 34 255 
0.800527 -4.52011 -33.7195 17 18 20 255 
0.644723 -4.58128 -33.9284 62 66 67 255 
0.72825 -4.87055 -33.6017 43 44 46 255 
0.56199 -5.0619 -33.9272 52 54 53 255 
0.565689 -5.20526 -33.7086 61 62 64 255 
0.557977 -5.27011 -33.688 10 13 16 255 
-0.016766 -5.28754 -33.7966 80 77 70 255 
-0.053777 -5.27495 -33.8512 104 103 99 255 
0.747995 -5.61643 -33.5022 31 40 22 255 
0.651709 -5.55681 -33.5971 79 78 73 255 
0.621356 -5.53811 -33.7963 173 166 148 255 
0.588038 -5.46641 -33.9226 173 160 141 255 
0.463708 -5.38633 -34.1143 147 143 131 255 
0.932203 -4.27813 -33.8008 23 27 30 255 
0.773727 -4.73163 -33.7009 20 24 25 255 
0.417945 -5.19373 -34.0119 38 43 46 255 
0.764573 -3.94583 -33.7034 123 127 136 255 
0.893524 -4.28133 -33.7229 135 136 140 255 
0.916826 -4.31899 -33.8343 54 58 61 255 
-0.234066 -4.59699 -31.4214 118 119 123 255 
0.756282 -4.79103 -33.4711 25 31 31 255 
0.756282 -4.79103 -33.4711 25 31 31 255 
0.513486 -5.04152 -33.9888 46 50 51 255 
-0.610058 -6.23073 -31.6213 94 96 95 255 
0.020807 -5.22108 -33.9732 107 104 99 255 
0.060032 -5.29857 -34.0249 128 129 124 255 
0.888678 -3.97934 -33.9533 91 98 108 255 
0.76921 -4.00575 -33.7394 68 73 77 255 
0.523359 -5.39208 -33.8674 157 148 133 255 
0.878271 -3.93162 -33.8585 58 63 66 255 
0.755229 -4.20522 -33.8738 24 25 27 255 
0.534393 -5.27404 -33.7282 23 24 26 255 
0.589283 -5.47644 -33.9346 154 141 122 255 
0.60275 -4.17629 -33.8731 38 39 43 255 
0.71087 -5.63694 -33.4744 23 24 19 255 
0.723121 -4.06437 -33.8168 34 35 37 255 
0.786023 -3.94988 -33.692 78 81 90 255 
0.805592 -4.40909 -33.8714 72 76 77 255 
0.667693 -4.37565 -33.8992 17 18 20 255 
0.813531 -4.56465 -33.7579 32 33 35 255 
0.750331 -4.5981 -33.955 114 129 126 255 
0.777431 -4.64298 -33.8789 33 37 40 255 
0.787148 -4.64156 -33.8949 33 37 40 255 
0.78586 -4.68228 -33.8871 72 76 77 255 
0.754282 -4.85517 -33.5865 62 67 71 255 
0.479715 -5.14888 -33.9858 57 58 60 255 
0.674711 -5.36223 -33.7413 82 91 96 255 
-0.001948 -5.29517 -33.8026 116 111 105 255 
-0.002903 -5.29507 -33.8016 116 111 105 255 
0.659439 -5.44328 -33.6103 87 87 77 255 
0.561055 -5.3878 -34.0545 111 115 100 255 
0.85213 -3.97177 -33.9666 105 108 113 255 
0.858712 -4.02638 -34.0156 73 77 80 255 
0.870375 -4.07527 -33.97 33 37 40 255 
0.639827 -4.34669 -33.899 36 40 41 255 
0.621126 -4.60287 -33.9298 56 57 61 255 
0.818589 -4.7087 -33.7837 52 53 55 255 
0.797664 -4.71572 -33.8163 19 21 20 255 
0.74799 -4.83185 -33.6225 11 15 18 255 
0.742396 -4.86094 -33.6212 44 48 49 255 
0.581397 -5.2394 -33.7003 98 103 106 255 
0.526034 -5.42276 -33.6873 53 55 54 255 
0.479292 -5.31936 -33.9879 47 60 66 255 
0.186268 -5.34801 -33.9137 122 130 118 255 
0.587751 -5.44099 -33.872 133 117 101 255 
0.618325 -5.45638 -33.8915 151 136 115 255 
0.598865 -5.58191 -33.8784 156 171 161 255 
0.766139 -4.05393 -34.004 44 45 47 255 
0.624081 -4.24275 -33.8887 54 55 59 255 
0.623292 -4.2428 -33.8889 54 55 59 255 
0.573861 -5.26016 -33.7043 12 13 15 255 
0.523165 -5.28166 -33.9234 89 90 80 255 
0.593834 -5.44802 -33.8673 175 160 139 255 
0.830773 -5.64133 -33.6786 182 178 169 255 
0.897546 -3.89674 -33.8526 98 101 106 255 
0.856389 -3.88695 -33.947 152 139 131 255 
0.823181 -4.60228 -33.7341 78 82 85 255 
0.739114 -4.71464 -33.888 41 42 44 255 
0.586074 -5.44913 -34.088 169 165 153 255 
0.789804 -4.71315 -33.6392 55 60 64 255 
-0.044532 -5.32032 -33.941 182 183 178 255 
0.515098 -5.12386 -33.9016 20 23 18 255 
0.493078 -4.29773 -33.7762 55 56 58 255 
0.475193 -5.38161 -33.8944 120 112 99 255 
0.644719 -5.63187 -33.824 140 162 150 255 
0.627587 -4.06154 -33.8814 146 134 124 255 
0.476431 -5.18339 -33.9304 28 29 31 255 
0.249226 -5.19679 -33.8909 101 101 94 255 
0.880106 -4.0076 -33.9806 107 114 124 255 
0.858166 -4.0809 -34.0247 89 90 92 255 
0.858166 -4.0809 -34.0247 89 90 92 255 
0.821701 -4.11809 -33.9279 23 24 28 255 
0.760698 -4.16286 -33.7892 18 22 25 255 
0.809935 -4.55177 -33.7108 28 29 31 255 
0.700917 -4.5946 -33.9496 29 33 34 255 
0.601012 -4.68896 -33.9308 27 31 32 255 
0.52472 -5.35577 -34.0235 41 50 55 255 
0.532722 -5.37132 -34.0106 44 45 47 255 
0.626498 -5.56577 -33.9634 68 71 60 255 
0.771065 -4.13492 -33.7287 79 83 86 255 
0.576749 -5.27218 -33.7011 91 96 99 255 
0.624137 -5.33177 -33.78 65 70 76 255 
0.373004 -5.28562 -33.9863 56 64 66 255 
0.825541 -4.06608 -34.027 35 36 38 255 
0.963577 -4.26459 -33.8698 61 51 49 255 
0.333722 -5.37646 -33.9696 22 27 30 255 
0.582453 -5.44628 -33.9853 139 128 106 255 
0.982722 -4.33696 -33.8238 33 36 41 255 
0.85157 -4.45507 -33.8255 43 44 46 255 
0.589918 -4.38184 -33.9162 13 14 16 255 
0.406184 -5.18769 -33.9903 75 80 83 255 
0.806296 -3.79685 -33.7537 148 137 133 255 
0.443392 -5.23729 -33.9022 43 47 50 255 
0.373975 -4.18275 -33.7043 139 125 116 255 
0.785658 -4.04794 -34.0786 169 174 177 255 
-3.50507 -5.08243 -26.7532 62 38 33 255 
0.628339 -5.56652 -34.1827 119 120 114 255 
0.628339 -5.56652 -34.1827 119 120 114 255 
0.673886 -6.18258 -33.2526 75 75 77 255 
-0.511813 -2.74218 -31.5373 123 113 104 255 
0.683292 -5.86633 -29.1837 193 129 37 255 
0.670156 -6.22186 -33.1966 76 77 81 255 
0.845012 -4.01084 -34.0285 31 34 41 255 
0.097809 -3.15209 -31.254 155 153 154 255 
0.885416 -3.89912 -33.8753 44 51 61 255 
-1.39422 -3.76982 -32.1067 134 121 115 255 
0.828114 -4.44916 -33.7785 47 48 50 255 
-0.231696 -4.55828 -31.4593 77 87 86 255 
0.767632 -4.56394 -33.8704 59 64 65 255 
0.812423 -4.62223 -33.7826 50 51 53 255 
0.50457 -5.01893 -33.9905 11 15 18 255 
0.451293 -5.30797 -34.0157 90 101 107 255 
0.790193 -5.70302 -33.4917 193 190 185 255 
0.214437 -5.36722 -34.0597 104 110 106 255 
0.594462 -5.57404 -33.9332 146 149 138 255 
-1.02669 -2.49697 -31.8804 148 135 127 255 
-0.125735 -3.68934 -31.4096 148 134 123 255 
0.727761 -4.24497 -33.8794 16 17 21 255 
-0.135131 -4.66069 -31.3971 101 103 102 255 
0.828137 -4.66157 -33.8652 82 86 89 255 
0.492295 -5.16431 -33.9534 18 19 21 255 
0.734288 -5.67895 -33.5558 152 152 142 255 
0.133218 -5.48947 -34.192 77 74 65 255 
-0.594261 -2.71674 -31.629 129 119 110 255 
-0.477405 -2.8249 -31.5581 143 132 126 255 
-0.108057 -3.67495 -31.4075 126 112 101 255 
0.7217 -4.27842 -33.8879 46 47 49 255 
-0.174071 -4.56488 -31.3784 105 115 114 255 
-1.86246 -5.52882 -32.167 13 15 17 255 
-1.9621 -5.71635 -32.2618 21 31 33 255 
0.144747 -5.50883 -34.0828 72 69 62 255 
-0.194355 -4.56037 -31.3475 105 115 114 255 
-1.18764 -5.01643 -32.0694 68 66 42 255 
-1.92945 -5.74303 -32.2102 15 26 28 255 
0.511892 -5.08806 -33.9723 37 41 40 255 
0.492056 -5.09709 -33.9793 10 14 15 255 
0.691669 -4.50789 -33.93 21 22 24 255 
0.742298 -4.33616 -33.8965 85 89 92 255 
0.792092 -4.63735 -33.8607 12 16 19 255 
0.585627 -4.6269 -33.9372 31 33 36 255 
0.705893 -4.79986 -33.9079 45 49 50 255 
-0.067377 -5.29472 -33.7343 67 64 59 255 
-0.019249 -5.28844 -33.9352 182 179 174 255 
0.619836 -5.65999 -33.5404 146 141 135 255 
0.582733 -5.51781 -33.958 96 88 69 255 
0.598266 -5.59908 -33.861 127 144 136 255 
0.578031 -5.55253 -34.0245 95 96 82 255 
-0.242918 -3.64588 -31.4668 108 94 85 255 
-1.88567 -5.77731 -32.1952 41 53 53 255 
0.470536 -5.35909 -34.0661 12 16 17 255 
0.316072 -5.53065 -34.162 94 91 82 255 
-0.817591 -2.69384 -31.7736 117 105 93 255 
-0.888359 -2.43746 -31.9086 115 102 94 255 
0.746583 -4.54957 -33.8755 35 44 43 255 
0.04934 -2.88926 -31.2633 150 146 145 255 
0.7118 -4.7663 -33.9098 44 45 47 255 
0.622344 -4.78926 -33.9651 57 61 62 255 
-0.340177 -6.41459 -31.3392 100 97 92 255 
-0.339875 -6.41397 -31.3397 100 97 92 255 
0.863267 -4.42554 -33.7817 36 37 40 255 
0.0276 -5.30888 -33.8097 149 146 137 255 
0.585113 -5.44718 -33.9228 169 156 139 255 
0.748945 -4.22756 -33.8374 78 82 85 255 
0.288827 -5.52916 -34.1641 96 95 90 255 
0.764063 -5.87742 -33.6296 68 64 61 255 
0.156338 -3.13697 -31.2288 115 113 114 255 
